1.481594281483990869e+02,-2.835505382521545048e+00,-1.312355231388936971e+01
3.746716457502502635e+02,-3.217002787753257653e+00,-2.371715290574832835e+01
5.005761088779037777e+02,-3.288680564590765965e+00,-2.520844127656511091e+01
6.359404062727476230e+02,-2.779912616124010416e+00,-2.292450699976576800e+01
1.610282447997556687e+02,-3.071339295986244888e+00,-1.382923151124245464e+01
3.674204912678872006e+02,-3.394614989828573570e+00,-2.292189245877016646e+01
9.398299164020700118e+02,-3.109154849061546599e+00,-5.651290440095934287e+00
8.020982901125088347e+02,-3.217142852117142127e+00,-1.604982469129532774e+01
7.159346894530020791e+02,-3.176825016680260294e+00,-2.066005347518083468e+01
7.955808972353407853e+02,-3.268782964693075499e+00,-1.589643721994531589e+01
3.191954094281601897e+02,-2.940062627313917432e+00,-2.145722162872979055e+01
7.744012872544894890e+02,-3.196408374516057194e+00,-1.673896341918923270e+01
5.309332740240557769e+02,-3.128468479540317926e+00,-2.488730802235561157e+01
4.982785741249396665e+02,-3.014658986777959182e+00,-2.531426051027808910e+01
9.613124617945836690e+02,-3.023384927943101541e+00,-3.595292533676472058e+00
1.886602491466725553e+02,-3.081436600207701826e+00,-1.523482917165067008e+01
8.487575402129424447e+02,-2.818959540469430980e+00,-1.260392826712582703e+01
3.578240736753213014e+02,-2.774753559226197375e+00,-2.354983610935992289e+01
7.879258522742208015e+02,-2.568987290506945520e+00,-1.731226666124413072e+01
3.691602736230784103e+02,-3.026187376822579100e+00,-2.318249814631932537e+01
6.822014567679503898e+02,-2.423646145557023068e+00,-2.186123788242224109e+01
2.153638792337563643e+02,-3.469197559150759336e+00,-1.664048660948535030e+01
1.691198018267214920e+01,-2.879502637073651616e+00,-1.752860838697136714e+00
2.702462025233419922e+02,-3.253546129028052736e+00,-2.007237962464171233e+01
6.112586658109287328e+02,-3.036229389840253035e+00,-2.330326352834095260e+01
6.237920038613123097e+02,-3.000945275026161152e+00,-2.277675302402162671e+01
8.733175366925265735e+02,-3.049285485982408783e+00,-1.112318513908719986e+01
9.516339065496679268e+02,-2.754402119873478938e+00,-4.694032866252793923e+00
1.069905604442960509e+02,-2.782368899580179189e+00,-9.864195969743217773e+00
6.617738117178682842e+02,-2.916940510751200311e+00,-2.233403948985327148e+01
6.509942691928144995e+02,-3.269785871163685353e+00,-2.239942570964317881e+01
1.782101182080550075e+02,-2.659302179607417660e+00,-1.495863808610120138e+01
7.030268090121928708e+02,-2.708262786245396736e+00,-2.122561476092455024e+01
1.426822577309607709e+02,-3.022945086839945450e+00,-1.210793834519762768e+01
2.674115359674610204e+02,-3.116852012976996100e+00,-1.935667407985121002e+01
4.656901046852388504e+02,-2.836775725471484488e+00,-2.498359402320410894e+01
5.265938732064464602e+02,-3.314522819057683645e+00,-2.473452788078733278e+01
1.311942280011101047e+02,-2.861715581772410477e+00,-1.154375533337607074e+01
1.848044314110753987e+02,-3.230107428761817445e+00,-1.500849403770926926e+01
2.220019264597801225e+02,-2.851525996012429509e+00,-1.735548307486377695e+01
2.380620287147871466e+02,-3.371458460918655753e+00,-1.838102446637745047e+01
3.495965102965391225e+01,-2.951882576417391046e+00,-3.547220566578081158e+00
5.072117794408816280e+02,-2.764436321794170759e+00,-2.512998201452699831e+01
8.267619087024539795e+02,-2.665364422730471361e+00,-1.440047336779244169e+01
9.406464980079919087e+02,-2.869290734231445317e+00,-5.466986478841024955e+00
7.773168197977615819e+02,-3.037521179912625158e+00,-1.696741268454791651e+01
8.501101819440799545e+01,-2.880793210688461503e+00,-7.545245007619635125e+00
7.139492818014967668e+01,-3.053537009952743908e+00,-6.509900917978504786e+00
9.011989386336789494e+02,-3.342843497824904198e+00,-9.109086256105340951e+00
9.318281820259942378e+02,-2.729690095276157358e+00,-6.298409030599411373e+00
2.756995378324013473e+02,-3.159005394556400503e+00,-1.985787164803198479e+01
8.433532683428546761e+02,-2.714595960797987040e+00,-1.324522670560132198e+01
3.336825748827409939e+02,-3.250619062946233928e+00,-2.183535515900940993e+01
7.513268676445914025e+02,-2.306171839198629225e+00,-1.864270083506869113e+01
6.847605240035964016e+02,-2.769614864413057820e+00,-2.203949618241034258e+01
9.547761538704842224e+02,-2.903702417001903235e+00,-4.245242081522086153e+00
6.635918432994008072e+02,-3.089335565331536415e+00,-2.258922402638371452e+01
8.561401838593504863e+02,-3.469130068565146274e+00,-1.192063381102119024e+01
7.355490487735062288e+02,-3.375675585339787954e+00,-1.937045815645089064e+01
5.516497449032571012e+02,-3.472855963495214304e+00,-2.476202571805073660e+01
3.598123680441979673e+02,-3.091295701580661248e+00,-2.327684119080139169e+01
3.081711464258368096e+02,-2.907149392224928963e+00,-2.116355657081760455e+01
3.683199801242562899e+02,-3.115490801758133976e+00,-2.341797867153532309e+01
9.709962685364700974e+02,-2.985982088867596751e+00,-2.575325545120488613e+00
2.470352709024722913e+02,-3.468774736777564982e+00,-1.884291271337848528e+01
3.205989813838216378e+02,-3.438302043947601305e+00,-2.116536578536227609e+01
6.156623366420659522e+02,-3.396625862896721859e+00,-2.392889910744055726e+01
5.038341468829018481e+02,-3.081963610862037850e+00,-2.491500902150959007e+01
5.157566293388585166e+01,-3.183339525474891296e+00,-4.907202750285646786e+00
4.789232063349801933e+02,-3.220916744903274509e+00,-2.499365620007623079e+01
8.629386424835964817e+02,-3.413871831680509672e+00,-1.194200507942335676e+01
1.427136894627781487e+02,-2.696589814872912161e+00,-1.262370136902080553e+01
5.027212423435106814e+01,-2.598466010426927930e+00,-5.040062080386529253e+00
7.685411438900679286e+02,-3.145698158650549914e+00,-1.814153639729556033e+01
2.026447991942524709e+02,-2.778542643788639577e+00,-1.607204902225798904e+01
6.457698851497800661e+02,-3.075359993328978803e+00,-2.276808658013858633e+01
8.646501907440643890e+02,-3.189137086867370297e+00,-1.175124991685446041e+01
9.625520171476540554e+02,-3.038211397465529373e+00,-3.618021876067654574e+00
6.314637036754963901e+02,-2.669737462829899322e+00,-2.302050415269154016e+01
3.507428950101295300e+02,-3.157566347467505974e+00,-2.294697594406783736e+01
7.920561278902954427e+01,-2.763249498043998109e+00,-7.211775643804642755e+00
5.122665305341288331e+02,-3.162427714382016308e+00,-2.567716724863949906e+01
6.112109323211734591e+02,-2.765600985279605517e+00,-2.395364706340868821e+01
3.251392680486615063e+02,-2.713878173183141396e+00,-2.228079060954623003e+01
3.633154774168893653e+01,-2.954031764802654614e+00,-3.833637355314500006e+00
6.613317024239286184e+02,-2.857137931951405196e+00,-2.206978572405871120e+01
7.631726086130829572e+02,-2.949120341552189384e+00,-1.718370089132734435e+01
2.903530397407320720e+02,-2.974578835171584501e+00,-2.010784642785354848e+01
9.614503320770866139e+02,-2.485040914087159880e+00,-3.646534532334915646e+00
7.394528623623257317e+02,-2.984524430037020171e+00,-1.900418442460417978e+01
5.702683152559658311e+02,-2.868094358705501445e+00,-2.387610847543121650e+01
9.545760109902792010e+02,-2.679150695021249362e+00,-4.511197113532795733e+00
5.201454748830607286e+02,-3.472897277388660164e+00,-2.521011423171908916e+01
5.440120791621143326e+02,-3.249687806690819691e+00,-2.506751876024738834e+01
1.818791902898766693e+03,-3.295161567010806536e+00,-1.492040728507379299e+01
1.902370563374669928e+03,-2.472590407696501735e+00,-8.975916671181986217e+00
1.261748838126349256e+03,-3.209888923011216644e+00,-1.916745169578283381e+01
1.627476288851963545e+03,-3.309738914639062557e+00,-2.337250973838767365e+01
1.763307714265873301e+03,-2.970992626274312265e+00,-1.846560462392212543e+01
1.147588075473710887e+03,-3.081836361350646758e+00,-1.318348627430512998e+01
1.510553302345686916e+03,-3.353728521278739994e+00,-2.494986084099566881e+01
1.811682401721662700e+03,-3.560557032649334985e+00,-1.536746708736749412e+01
1.739665406160519979e+03,-2.717376804517809497e+00,-1.930635127869104295e+01
1.309977739270760821e+03,-3.175116680194820518e+00,-2.146352269771717047e+01
1.304984307257448563e+03,-2.964337063501587988e+00,-2.102147472862781541e+01
1.982647073070912484e+03,-2.790265307298248398e+00,-1.724211471211550828e+00
1.312557679718687496e+03,-2.859104162360941892e+00,-2.176980945778136345e+01
1.998426462627416186e+03,-3.098477051018469819e+00,-4.580545016029520244e-01
1.415341836732167167e+03,-3.319727227525583579e+00,-2.405870693407557326e+01
1.279129066928076554e+03,-3.508975729962937606e+00,-2.011420041541274983e+01
1.029444319960534358e+03,-2.827155252160592269e+00,-3.214017913591781461e+00
1.492122847163296910e+03,-3.009630640549181280e+00,-2.519680976157163954e+01
1.182927726838503531e+03,-2.985350541898978527e+00,-1.514463698993295537e+01
1.383516377228502279e+03,-2.972879279673927400e+00,-2.404100238010686041e+01
1.198351696419669452e+03,-2.994090309991086496e+00,-1.581620902480279156e+01
1.607920774171994253e+03,-3.182221778877615037e+00,-2.342408451667428082e+01
1.950188776272325413e+03,-2.636129248720024076e+00,-4.554261132296704595e+00
1.943414237616489117e+03,-3.119568072016315252e+00,-5.081920325579955211e+00
1.323930958070460292e+03,-3.239334631414536148e+00,-2.171406680947528400e+01
1.915098751995265502e+03,-2.677426822418480512e+00,-7.545321755298616928e+00
1.891316984224903990e+03,-2.634558857890723527e+00,-9.470057604848745925e+00
1.269705274177669935e+03,-3.192938814127009195e+00,-1.981745326613913250e+01
1.202768142458366583e+03,-2.951981161018023325e+00,-1.610889569440116986e+01
1.720275251831851619e+03,-2.835098116881555885e+00,-2.010728070112284627e+01
1.022400638693153951e+03,-2.887447521739848977e+00,-2.111021353965794489e+00
1.545027626558127395e+03,-2.920155976278771881e+00,-2.526255576498670408e+01
1.480215640380388550e+03,-2.737225676588726841e+00,-2.502571424484295193e+01
1.468686079379038574e+03,-2.735232970946396502e+00,-2.521767668730100098e+01
1.423728293258061058e+03,-2.942663325573827482e+00,-2.425988511529903491e+01
1.779082215306334319e+03,-3.182483429622780413e+00,-1.756959334185523858e+01
1.156811637483226832e+03,-3.230649597799941208e+00,-1.381888469043922107e+01
1.529458002861675595e+03,-2.683598712898151106e+00,-2.516166527586191037e+01
1.689772587780623326e+03,-2.706099084411031086e+00,-2.127116387996484193e+01
1.565865499002730985e+03,-2.880963577593604441e+00,-2.466319690979551638e+01
1.708338292519185416e+03,-2.596017130497856318e+00,-2.073158435213362694e+01
1.182163589947466335e+03,-3.191491202165674945e+00,-1.495744065226221231e+01
1.788035205522253364e+03,-2.495367010333549018e+00,-1.720930065700448708e+01
1.429779857246305255e+03,-3.030392928050783752e+00,-2.471613949832655166e+01
1.756001911217356792e+03,-2.805472254032862711e+00,-1.890952492379811645e+01
1.567162310763592359e+03,-3.243194651529210493e+00,-2.424974229695905592e+01
1.995899344564204966e+03,-3.454440113815362423e+00,-4.956470890359351289e-01
1.496031181961419861e+03,-2.722908115659969042e+00,-2.517174888028596413e+01
1.105129102747433762e+03,-2.606593728527885734e+00,-9.646810964075072548e+00
1.443629270348300452e+03,-2.738747059872148615e+00,-2.480218957216392184e+01
1.237747717467177154e+03,-2.713307325846166851e+00,-1.832194235893484091e+01
1.190185577549959817e+03,-2.542716187130074079e+00,-1.520003426609462416e+01
1.267479638085190800e+03,-3.118540359259969197e+00,-2.019613747639818513e+01
1.445194489997928031e+03,-3.003349789907638012e+00,-2.448316536687861600e+01
1.759742074146033019e+03,-3.148773366396132367e+00,-1.821984062555993589e+01
1.794868725867923331e+03,-3.188278708228864389e+00,-1.665034759000722886e+01
1.129891985316278351e+03,-3.215202656182236218e+00,-1.101544704547708520e+01
1.026533660260894521e+03,-2.978066544882654654e+00,-2.773299539787715151e+00
1.987923632838350841e+03,-3.441371117293210435e+00,-9.347316699962557873e-01
1.197182394428599082e+03,-2.968128873476072904e+00,-1.616838764534487893e+01
1.312451677092066802e+03,-2.739450484528395791e+00,-2.133446713030798492e+01
1.419703624220124311e+03,-2.706465037873302837e+00,-2.486219982717191002e+01
1.837866885956821534e+03,-3.256380795282966645e+00,-1.362458426770129805e+01
1.074727539868911435e+03,-2.794845804421557833e+00,-6.218281879255560085e+00
1.789541635855793629e+03,-3.073420330417418356e+00,-1.682600096542838131e+01
1.945727368129167189e+03,-3.344948754815650016e+00,-5.471857558933157506e+00
1.151488265739358667e+03,-3.306733128479977246e+00,-1.315753741299947599e+01
1.011035522933589164e+03,-2.646588276761419500e+00,-8.043295127847249759e-01
1.672435051239047652e+03,-3.360330289312440044e+00,-2.202089486857096645e+01
1.726534789488658816e+03,-3.352346830462654914e+00,-1.950812355248708840e+01
1.461198125514275034e+03,-2.845192492937951734e+00,-2.510002537620339425e+01
1.149150648594798668e+03,-3.532934057022332652e+00,-1.249680764470709704e+01
1.283192087901717514e+03,-3.198041053622161733e+00,-2.038453522831241571e+01
1.026690106425325212e+03,-3.035834998613663238e+00,-2.861184554395838298e+00
1.971254290195375688e+03,-2.925433405437234846e+00,-2.789706994027122633e+00
1.869953486974299722e+03,-2.653934483770002739e+00,-1.120513918060488301e+01
1.224415146406071472e+03,-3.153939471614254142e+00,-1.721185898354431743e+01
1.762026862580599982e+03,-2.916677127588439777e+00,-1.807910274455784005e+01
1.805560441231984896e+03,-3.197452507110654096e+00,-1.545069998292118463e+01
1.002672533095151948e+03,-2.980510434132904507e+00,-4.385806206919574124e-01
1.087804501605204678e+03,-2.870738613420131369e+00,-7.728891452496307934e+00
1.990268322273429931e+03,-3.337064422496967442e+00,-1.055349468700348403e+00
1.389360076302183643e+03,-2.683725356844749665e+00,-2.375434696618621899e+01
1.911429729168639142e+03,-3.065424200350053585e+00,-8.162856251661738227e+00
1.989444789726795307e+03,-2.918926249570712450e+00,-7.222636851369228506e-01
1.865471863036881587e+03,-2.932775150582157764e+00,-1.187759618177501153e+01
1.935235241094973617e+03,-3.033004032517240045e+00,-6.218013692922865765e+00
1.250867169984865541e+03,-2.980573059086760512e+00,-1.865819312100274630e+01
1.989532383494532496e+03,-2.746125980358581131e+00,-9.383076525758206055e-01
1.903856739572252536e+03,-2.969923945149862465e+00,-8.695005903496149102e+00
1.412495521296968946e+03,-2.895919030197458888e+00,-2.434369543332098473e+01
1.233939208088619807e+03,-2.830564094217812077e+00,-1.755597150243674065e+01
1.174733117292896168e+03,-3.518868264452156946e+00,-1.438602463504060225e+01
1.352151169871341153e+03,-2.807014373336121249e+00,-2.242913130886619655e+01
1.980047790703745477e+03,-3.189143433970555108e+00,-2.002599261294092603e+00
1.324639822148594021e+03,-2.920381543077658293e+00,-2.202917980128527731e+01
1.860845172574211574e+03,-2.813450248567162859e+00,-1.187524931034688080e+01
1.793057447353971384e+03,-3.347752639603486902e+00,-1.618146607516971969e+01
1.041112986375763285e+03,-3.292720496260117535e+00,-4.313234222000351004e+00
1.763011143993745463e+03,-2.466175083965045367e+00,-1.851471303216588993e+01
2.255431098181592461e+03,-3.378434859760798492e+00,-1.907740309946771262e+01
2.888608026019262070e+03,-2.662633894835644277e+00,-1.024899043063687465e+01
2.713763254190280350e+03,-3.652518721963233350e+00,-2.040235874950560202e+01
3.000035028999742281e+03,-3.091151939067676935e+00,-1.331093481382910892e-01
2.666083253523735493e+03,-2.991870197882764426e+00,-2.223518006615016418e+01
2.546381421469985071e+03,-3.036619840926401359e+00,-2.462201433750312063e+01
2.741807002860166904e+03,-3.168048203867500856e+00,-1.912680244195569301e+01
2.452642300234319464e+03,-2.924128806821069571e+00,-2.486336690874486166e+01
2.824892978092027988e+03,-3.251996091416110790e+00,-1.432719121465446221e+01
2.946974204208170249e+03,-2.913062967540155146e+00,-5.361707075905104425e+00
2.452369827768321102e+03,-2.876607371352126297e+00,-2.471867071631852752e+01
2.747005409114274698e+03,-2.830404184273484169e+00,-1.911170320242472442e+01
2.699259271193209315e+03,-3.012450784478431842e+00,-2.111665781909350059e+01
2.580301981860592150e+03,-2.756186997222232371e+00,-2.418660128512127017e+01
2.633087052082980790e+03,-2.617316884613938743e+00,-2.298050276184310192e+01
2.442619907417184550e+03,-3.166119928687143315e+00,-2.421894680588797399e+01
2.672493491079432715e+03,-3.070207818067549610e+00,-2.223546077151904754e+01
2.437224853417688792e+03,-2.897339346973079266e+00,-2.530028991693225038e+01
2.604170938509281768e+03,-2.758054667448227804e+00,-2.390511858910451437e+01
2.148233510526616556e+03,-3.347319144673604807e+00,-1.233031445171550544e+01
2.212787892525699135e+03,-2.900330235149450875e+00,-1.632951139644101346e+01
2.067393320159188988e+03,-3.548614212274971536e+00,-6.620006565122995568e+00
2.398710075345944915e+03,-2.862516318375138091e+00,-2.419521962431164397e+01
2.632008921130573526e+03,-2.968029072047001282e+00,-2.256823477087151986e+01
2.861409418242688389e+03,-3.194925645409320669e+00,-1.214260248372988471e+01
2.690561394857018513e+03,-2.441075650514730633e+00,-2.107942028116751843e+01
2.506164548058860873e+03,-2.447229181999936110e+00,-2.493489657445326912e+01
2.761190581299954374e+03,-2.721331095291838142e+00,-1.846928544482357282e+01
2.451307195530470381e+03,-2.958012962945741453e+00,-2.415160028517515656e+01
2.030717040168683752e+03,-3.523852562413932077e+00,-3.171789960432110256e+00
2.191647564352000245e+03,-2.981453571286516446e+00,-1.556122578153760827e+01
2.275693091331008873e+03,-3.132740942261251327e+00,-1.974951314391892154e+01
2.032945059115593494e+03,-2.679454782756732101e+00,-3.150045093948861119e+00
2.951222456189041623e+03,-3.135123383640175732e+00,-4.862428215961964284e+00
2.025082511818256989e+03,-3.127319212061044684e+00,-2.203319552144930249e+00
2.209328918634257661e+03,-3.389301551224304543e+00,-1.665034438484365964e+01
2.008514964571215387e+03,-3.034687431551138737e+00,-9.761934600132979867e-01
2.693297192884047490e+03,-2.703251703214760937e+00,-2.139603613985540065e+01
2.146514488710215119e+03,-2.777743393497970725e+00,-1.255677441428294649e+01
2.157240767259977474e+03,-3.689761239383701152e+00,-1.289938958904471455e+01
2.363065197714784517e+03,-2.802778155690810014e+00,-2.282950732828673779e+01
2.320617093449733147e+03,-2.363532676815264910e+00,-2.206114910069615931e+01
2.428184222924272490e+03,-3.024817225714345970e+00,-2.436826391770240718e+01
2.457042192833254830e+03,-3.340421922619568385e+00,-2.483615669819175764e+01
2.143318893143456989e+03,-3.035248293960407295e+00,-1.242269652113578005e+01
2.304237713501429425e+03,-2.972626670958872008e+00,-2.127899022505029336e+01
2.453643790228415128e+03,-3.330012261435403520e+00,-2.444318670685860084e+01
2.524157951497980321e+03,-3.612053179859383345e+00,-2.501802748491538964e+01
2.651525894087858433e+03,-2.752751903590332283e+00,-2.280120838013684903e+01
2.221107260219445834e+03,-2.938997550321974739e+00,-1.716251450502536713e+01
2.971479814236492530e+03,-3.149825686849343054e+00,-2.868121702518277694e+00
2.095305409552805941e+03,-2.988636560864758707e+00,-8.616783117639773337e+00
2.494208025387160433e+03,-3.033373340465724155e+00,-2.529186552490764228e+01
2.344289583783971466e+03,-3.229289867576591977e+00,-2.251302524197002697e+01
2.406504589423512698e+03,-3.391066023650162631e+00,-2.422918765905192373e+01
2.958276568159936687e+03,-2.721061738959417831e+00,-4.033402268580768002e+00
2.882775138663419966e+03,-2.810679769451103205e+00,-1.077673092077588457e+01
2.020244037154165653e+03,-3.285433729540421233e+00,-2.137275532283574364e+00
2.178211173692238845e+03,-3.199958847686722674e+00,-1.454873592208511290e+01
2.715902793360618489e+03,-3.303559233836467435e+00,-2.082073986149748634e+01
2.810825374304549314e+03,-2.977260550204614109e+00,-1.554991565015138200e+01
2.183592839648877998e+03,-3.444919579718889402e+00,-1.477856372516489181e+01
2.174323529307739591e+03,-2.747412472811987971e+00,-1.451361826744512662e+01
2.266293725704294957e+03,-3.151368026650947840e+00,-1.983559124739281643e+01
2.073206942956523108e+03,-3.307485879737319667e+00,-6.729916497648918750e+00
2.697751853271614891e+03,-2.847114609664771478e+00,-2.134928552131864166e+01
2.455787373474439391e+03,-2.900496451555788724e+00,-2.495964928480594480e+01
2.529038540482307326e+03,-3.078006555612819994e+00,-2.522937423271467949e+01
2.095240541076808313e+03,-3.093099604472369091e+00,-8.629115486591736328e+00
2.896898633368803530e+03,-3.196711505331721437e+00,-9.502845289353404112e+00
2.367610940322895203e+03,-2.875258462838502282e+00,-2.336796825758178286e+01
2.267827975817843253e+03,-2.910139303161999980e+00,-1.944929049020997169e+01
2.385054990234601973e+03,-2.960521318370620492e+00,-2.329658049949326326e+01
2.627621800019918282e+03,-3.293743246857058882e+00,-2.343562873613370101e+01
2.035217001895326575e+03,-3.174776215142525615e+00,-3.550018858606746708e+00
2.911467913627186590e+03,-3.421993328293658543e+00,-8.146846784865335422e+00
2.663062187291828650e+03,-2.808178613795013767e+00,-2.191031394547275468e+01
2.842603690531927896e+03,-2.834771017659741155e+00,-1.342142183455244897e+01
2.788394688968237006e+03,-3.112913351505446347e+00,-1.648681994104654791e+01
2.137180349147580728e+03,-2.801458587099407982e+00,-1.155158847784856491e+01
2.180665222985715445e+03,-2.772018921226069743e+00,-1.518049270392541494e+01
2.595607794131513401e+03,-2.889029179546307891e+00,-2.419860040982920069e+01
2.259469607058501424e+03,-2.856615223409672222e+00,-1.924733252022447871e+01
2.328199190375173657e+03,-2.943113062860002849e+00,-2.203617078171276589e+01
2.384120151230977626e+03,-2.642977259534437628e+00,-2.376565451184433186e+01
2.280851797441561757e+03,-2.895705687312871479e+00,-2.023611654825064221e+01
2.957955488673094806e+03,-3.235190789440929304e+00,-3.646291286105162843e+00
2.709434975863544878e+03,-2.712760796278324005e+00,-2.046596315399797916e+01
2.034723464092864106e+03,-3.295876873196889711e+00,-3.285058082761871390e+00
2.185626392306640810e+03,-3.370121065682529782e+00,-1.511427917712814306e+01
2.922885952161171190e+03,-3.123838777909561326e+00,-6.857878680890868495e+00
2.208820656149806837e+03,-3.188449654135650402e+00,-1.684060404858421833e+01
2.679375426526462434e+03,-2.701895101062707472e+00,-2.156935351278226776e+01
2.481470366433156869e+03,-3.108748493442830885e+00,-2.454955864673218358e+01
2.274191855328423117e+03,-3.068965603457504798e+00,-1.981050554247245898e+01
2.149062954157262993e+03,-2.864447543041892530e+00,-1.264251038141536121e+01
2.928314938385193273e+03,-2.441680050123559820e+00,-6.540216517044865618e+00
2.274519723599974895e+03,-2.833897838401530755e+00,-2.016434418710703369e+01
2.023265371630858908e+03,-2.705040693669204188e+00,-2.165875943085472599e+00
2.118303072375172633e+03,-3.386214779189279156e+00,-1.075379442745704495e+01
3.892866439539645398e+03,-3.077997096361017704e+00,-9.797599846744189378e+00
3.627222582772477381e+03,-2.696963578778469817e+00,-2.341910261814739513e+01
3.654598896518229594e+03,-3.290614431772465043e+00,-2.255259586736572075e+01
3.900017609375812754e+03,-3.076836857015520454e+00,-8.885371623894801729e+00
3.205173101260249041e+03,-3.154052572390404929e+00,-1.640902781451507408e+01
3.122667216529050620e+03,-3.466161988709772768e+00,-1.064829497373505340e+01
3.629692535866011895e+03,-3.168122028210529351e+00,-2.296118941247335954e+01
3.542297857873280918e+03,-2.983997511469424158e+00,-2.474242620211965971e+01
3.896031722533643006e+03,-3.550067599594826540e+00,-9.287534222487620283e+00
3.902135196592223110e+03,-2.945896201082295551e+00,-9.140024188545675443e+00
3.200772119201673377e+03,-3.231632205087288767e+00,-1.567294444335011505e+01
3.567420793903241247e+03,-3.010462512668909074e+00,-2.450360543270193148e+01
3.399857669304935825e+03,-2.586386462869719960e+00,-2.393037566074933054e+01
3.028523970839846697e+03,-2.712991573372738774e+00,-2.762688520336157527e+00
3.876300434294733805e+03,-2.880381239180823005e+00,-1.063746439754222450e+01
3.552021799349991852e+03,-2.987969327412048681e+00,-2.499712089940738480e+01
3.250053873229809142e+03,-2.717820769469756925e+00,-1.853684325859022763e+01
3.246674321606410558e+03,-2.963703644830458561e+00,-1.817118423599999488e+01
3.909650190625741743e+03,-3.069677707720657178e+00,-8.240774647587043589e+00
3.090029307302009784e+03,-2.859968870052729706e+00,-8.370992759056285593e+00
3.533561818237194984e+03,-3.002851945918467713e+00,-2.473286149344703588e+01
3.836851243007669382e+03,-2.861867021741684614e+00,-1.376356126586477302e+01
3.138642671463903753e+03,-2.877449614339635087e+00,-1.174376970102822781e+01
3.745643710575957812e+03,-3.444668791007131858e+00,-1.870611655730558809e+01
3.517374447956179210e+03,-3.138882135651266392e+00,-2.525776998474412949e+01
3.900632744422866381e+03,-2.911055847080540548e+00,-9.270373618246596337e+00
3.114710269451933073e+03,-3.230156448674168512e+00,-1.012885115241870082e+01
3.675757837864627618e+03,-3.057529656549773378e+00,-2.231689241516130906e+01
3.467826347345711383e+03,-3.109444676117407269e+00,-2.500680647176079674e+01
3.705346173107019240e+03,-2.876831496974431968e+00,-2.072475200013864693e+01
3.379676097410007969e+03,-3.169146024176157095e+00,-2.314885523090174146e+01
3.761263945831324236e+03,-3.050962378765509353e+00,-1.798554444825571252e+01
3.717707235895330541e+03,-2.723443401562265720e+00,-2.022736767333788066e+01
3.970298428369430439e+03,-3.266463411629150215e+00,-2.972902021220016788e+00
3.290740600798929790e+03,-3.025695937554198522e+00,-2.092677839593986988e+01
3.275246221694837914e+03,-3.282605863561927961e+00,-2.008567967337491567e+01
3.903110795020309524e+03,-3.436198979724501612e+00,-8.883176341546873189e+00
3.553050002404163934e+03,-2.976932873756870990e+00,-2.453740597901736109e+01
3.673281357981376914e+03,-3.115695558772905827e+00,-2.259839284985233832e+01
3.533002616339045744e+03,-2.578310749728504270e+00,-2.497218080346385705e+01
3.250232445349913178e+03,-2.943587540466111374e+00,-1.880374556932069652e+01
3.448683138636754848e+03,-2.967815193018145781e+00,-2.497079829883058366e+01
3.791865840793765074e+03,-2.570502930281574283e+00,-1.625261975342729670e+01
3.568797827596465140e+03,-3.028389924945077194e+00,-2.473942646843393689e+01
3.132721322102357135e+03,-3.018247830031168810e+00,-1.130782459435807930e+01
3.499216453634578102e+03,-2.887462035854833076e+00,-2.483929469362974274e+01
3.677226495684120891e+03,-3.070201057620495000e+00,-2.133592625702052104e+01
3.782644385360839351e+03,-2.979440894093760228e+00,-1.672264329190475962e+01
3.380589529426325498e+03,-2.882100847280347544e+00,-2.361221514225107043e+01
3.608828638466659413e+03,-2.841813405762211531e+00,-2.342557082077185271e+01
3.746093368959800955e+03,-2.701556441662672281e+00,-1.874160716466781551e+01
3.366442371687022842e+03,-3.528150193093782860e+00,-2.280968714641531747e+01
3.258194634185813811e+03,-2.823949445831033245e+00,-1.929367548908508212e+01
3.901494706959796076e+03,-2.385351404085170213e+00,-8.570373586474401506e+00
3.651320366834348079e+03,-3.490018847422485138e+00,-2.311879367179063749e+01
3.476994721192408178e+03,-3.189186031541592747e+00,-2.502592242762372621e+01
3.265370494913363018e+03,-3.437168794609941624e+00,-1.921675791237762709e+01
3.918220454667924059e+03,-2.849190346241992522e+00,-7.460654908019569653e+00
3.364275241800361528e+03,-3.070964076683741606e+00,-2.319889075499432352e+01
3.778650297171527200e+03,-2.481692100674885992e+00,-1.734489359168228972e+01
3.442446486877443022e+03,-2.769302712066650241e+00,-2.515160037686173311e+01
3.791987217619346211e+03,-2.867285556687158010e+00,-1.685016019671851240e+01
3.662550408723453984e+03,-2.553051800018303119e+00,-2.251136339431566213e+01
3.409193403140780902e+03,-2.952959078155662720e+00,-2.418017979526828043e+01
3.973821264172377596e+03,-2.858438988771378142e+00,-2.495640849652366988e+00
3.250319345824635093e+03,-2.967264338094761200e+00,-1.917506705760762387e+01
3.638146649715198691e+03,-3.071719378345423745e+00,-2.335523517831305895e+01
3.373094014314689502e+03,-2.462734028161221111e+00,-2.323618013128885451e+01
3.093185833065827410e+03,-2.763570625050618457e+00,-8.203598734239040624e+00
3.873524513859296349e+03,-2.796049676492142311e+00,-1.156693271717492166e+01
3.551710049505327333e+03,-2.769245900028820095e+00,-2.466753865386777278e+01
3.813229438901867070e+03,-3.052924652066554501e+00,-1.492219120092935825e+01
3.854138782477654786e+03,-2.763241031037100726e+00,-1.273473923624372439e+01
3.735976045341809368e+03,-2.818035260503215955e+00,-1.969820592348300536e+01
3.127625681954042193e+03,-3.496401506467363696e+00,-1.105278178258119404e+01
3.393558416534203843e+03,-2.952071388057641244e+00,-2.393132860622356617e+01
3.471087794831271822e+03,-3.156721109847731910e+00,-2.541372386300400876e+01
3.969213153723777395e+03,-3.106690886336711532e+00,-2.977498873791306622e+00
3.066742982389964709e+03,-2.845126724466406465e+00,-5.982010378404742035e+00
3.315795852655741783e+03,-3.456563047620314855e+00,-2.203387051255344176e+01
3.978143979369533554e+03,-3.086474466268235961e+00,-2.094991935968982588e+00
3.761748973733770981e+03,-2.917368443470908179e+00,-1.861308799351554910e+01
3.240935702775812388e+03,-2.950190852271237230e+00,-1.818767026071126125e+01
3.480382543348985564e+03,-2.667682890528267681e+00,-2.481598213287101728e+01
3.266614946178837272e+03,-3.181341221760647375e+00,-1.942529672010785191e+01
3.040225672818386556e+03,-2.834142989629309994e+00,-3.881650425823568895e+00
3.203800524777777810e+03,-2.863635624251633871e+00,-1.620195195529598564e+01
3.462569847655896410e+03,-3.314493419028393895e+00,-2.519815653792891652e+01
3.327174390503561881e+03,-2.777677385314148317e+00,-2.241534935003441475e+01
3.219539294056587551e+03,-2.806678956398730218e+00,-1.721561420926137487e+01
3.822616008472313297e+03,-2.815485211019795653e+00,-1.442296660175033018e+01
3.123458405746679091e+03,-3.449240513282467724e+00,-1.096007555044089976e+01
3.524975152331625850e+03,-2.735828590228453816e+00,-2.542243476081299036e+01
3.113314373207743756e+03,-3.128500314316639219e+00,-9.914505901183135350e+00
3.491130532536279134e+03,-2.941136479165542106e+00,-2.481979073306443340e+01
3.323524617968844268e+03,-2.669430995821381103e+00,-2.194708980408839594e+01
3.572397997502419457e+03,-2.671830782258863834e+00,-2.457085546613771854e+01
3.570952715985493342e+03,-2.713702062836030215e+00,-2.448674191118882959e+01
3.186452235419872977e+03,-3.010533375210773688e+00,-1.506582079969302335e+01
3.879362471635141446e+03,-3.778743779162925254e+00,-1.096948567163421373e+01
2.781948057052081253e+02,-5.726843270773809280e+00,-2.003885834227639506e+01
5.986354412163952929e+02,-5.947301963427817029e+00,-2.421283823647543088e+01
5.814731835028848081e+02,-6.408634531035099613e+00,-2.443189703170002147e+01
8.517745994465113881e+02,-5.920257610218214062e+00,-1.212262477077040579e+01
4.470551036014789474e+02,-5.955744368667164501e+00,-2.498396330894531303e+01
8.775127411228801293e+02,-6.168389778733446072e+00,-1.108390279179886662e+01
3.758844203372235029e+02,-5.993265993515115575e+00,-2.322007471330557138e+01
1.270468494542848248e+02,-5.393770163877405821e+00,-1.086991094715500061e+01
1.333344071891226861e+02,-6.483091676002167958e+00,-1.125968387459271725e+01
2.249823077681021744e+02,-6.197440471234771486e+00,-1.732502689010252794e+01
3.798068150598589199e+01,-5.957227874692121894e+00,-3.603498824270630507e+00
7.989225110914946981e+02,-5.762003038338407102e+00,-1.590937443545573871e+01
8.695935023361143976e+02,-5.548436690942425642e+00,-1.140439407104712721e+01
1.336637506252275216e+02,-6.351160553982870383e+00,-1.118653010413831517e+01
1.640923618655340306e+02,-5.645445639199175858e+00,-1.390032958093860138e+01
1.728601877270824616e+02,-6.162286673644182144e+00,-1.460189565312912485e+01
6.153367065085543572e+02,-5.904441386488150201e+00,-2.370315608276133545e+01
4.842144506603924015e+01,-6.052415634969096736e+00,-4.852363106539097082e+00
9.344149482201405590e+02,-6.063979146389590902e+00,-5.978928259536733236e+00
9.738452177118699638e+02,-5.967077228022175106e+00,-2.313354070888275160e+00
1.193193739545465064e+02,-5.894888848703378592e+00,-1.009531339903696434e+01
7.323562428315727857e+02,-5.767157179453413107e+00,-1.946434530112342642e+01
3.885262705055864103e+02,-5.962086195156771851e+00,-2.410937705809323361e+01
1.891444853456162036e+02,-5.866095114473663052e+00,-1.522324457080195614e+01
6.772278123987374556e+02,-6.565264470622929061e+00,-2.231953913168450043e+01
1.215260133546822630e+02,-5.758055064212629581e+00,-1.071577953608473344e+01
5.440495342367270837e+01,-5.855850027033386418e+00,-4.797962826845955320e+00
2.019365351348175182e+02,-5.922247117277200879e+00,-1.589057766715533404e+01
2.309825573848146973e+02,-6.095262404748036822e+00,-1.781983748083671060e+01
2.319496143305851188e+00,-6.103206810177670860e+00,-2.615168548523772452e-01
3.346802926132630063e+01,-5.387850416836485579e+00,-3.195190154587777442e+00
1.633218188689099577e+02,-6.178968017093598775e+00,-1.403962774882648823e+01
6.876031266316274468e+02,-6.134108680880022924e+00,-2.185127327692013566e+01
9.992524549310211341e+02,-5.723614206718604436e+00,-4.304676191655799067e-01
5.003625394054038225e+02,-5.900483523935569075e+00,-2.482584180552829523e+01
5.524805833136662159e+02,-6.409602388183962773e+00,-2.462422953459799402e+01
1.500018850256337828e+02,-5.992587007905257224e+00,-1.243282877680677423e+01
4.163789166074003560e+02,-6.144503058900988357e+00,-2.455306454335220678e+01
4.610667533214348737e+02,-6.107401904692055794e+00,-2.486729926868521900e+01
5.455650490595237443e+02,-6.079251723939283814e+00,-2.498925336681664078e+01
9.991571229132061305e+00,-5.825648271511099097e+00,-1.150663953885534774e+00
5.880816046669369825e+02,-5.997623052585132619e+00,-2.482457999161075435e+01
4.473457876668899189e+02,-5.896945669741018747e+00,-2.450233978051260308e+01
9.559381095847858489e+01,-5.938816919741870315e+00,-8.567551857625424816e+00
1.762000263897937771e+02,-6.267429360745619960e+00,-1.447515612781893424e+01
3.805951742800326087e+01,-6.415197806325023677e+00,-3.200403130036239219e+00
7.832530240922151279e+02,-5.756140814605501532e+00,-1.700557019085479737e+01
2.851313190455135214e+02,-5.830221440307798986e+00,-1.999658482427134487e+01
8.893233127115905745e+01,-6.354194202534898750e+00,-8.132455648149443661e+00
8.278453144876383476e+02,-5.587379143611936883e+00,-1.395939694139972431e+01
4.359458361450123220e+02,-5.982821201137182854e+00,-2.491090270296035669e+01
1.512996003136176739e+02,-6.253708568338798734e+00,-1.286220352580660276e+01
6.272734298256991678e+02,-5.908730744390617851e+00,-2.310553407674684223e+01
4.040594514265837347e+02,-6.107244908960854701e+00,-2.393575750807831071e+01
2.195278562488423688e+02,-6.447160321316989240e+00,-1.701708181512540818e+01
3.189353289039365791e+02,-5.670373939439391719e+00,-2.187001443787568178e+01
3.979661616587288364e+01,-5.847009912344877769e+00,-3.870706938966550492e+00
9.451881196616482157e+02,-6.192777341323643547e+00,-4.841075757717685057e+00
1.070071061649628916e+02,-5.727183310305191455e+00,-9.948844547840595354e+00
8.168611425531415762e+02,-5.916010913070105737e+00,-1.485935148596733590e+01
7.653732437847960455e+02,-5.882954865257777222e+00,-1.755534863873507945e+01
1.645320240827262239e+02,-6.507822563604381827e+00,-1.397401669028091220e+01
7.839500934880180694e+01,-5.861768716339424756e+00,-7.068061204689516153e+00
7.049387779961157321e+02,-6.066426585182406406e+00,-2.109481292235982508e+01
9.679684799089270655e+02,-5.764646746028256885e+00,-2.953733271426463247e+00
1.476909805429744722e+02,-6.434914851391178914e+00,-1.233642197743655977e+01
7.062095092812052144e+02,-6.097758575307793194e+00,-2.102297063972122615e+01
1.875130833643334825e+02,-6.304477393165611510e+00,-1.538294246836977663e+01
3.121632105416700256e+02,-6.020025345968543995e+00,-2.203319427570054145e+01
1.268804556180505330e+02,-5.788002357392891817e+00,-1.119252293903307560e+01
5.481448500276499658e+01,-6.018199663707336278e+00,-5.601787828679966275e+00
9.929519052285737644e+02,-6.026251756390250236e+00,-6.808413205853478534e-01
7.669220455876182996e+02,-5.875401061822230986e+00,-1.810248529673563667e+01
7.089311134707926065e+00,-6.254955266131285718e+00,-6.614882020876637903e-01
1.259785207717980740e+02,-6.086720633094976129e+00,-1.086479999419712605e+01
9.449164058513909481e+01,-6.145257798173040520e+00,-8.713098860398604373e+00
8.408927521560826790e+02,-6.412613825114466870e+00,-1.364785151397163787e+01
6.146118068653554474e+02,-5.874240929035924985e+00,-2.354460572588873646e+01
7.862649986195580141e+02,-6.011462672104919136e+00,-1.687633859148257898e+01
5.936650744283109589e+02,-6.604780238262923930e+00,-2.371487858999129728e+01
8.918328298936150986e+02,-5.943782419154386432e+00,-9.242098828921857745e+00
1.005164916289370467e+02,-6.029034965215848807e+00,-8.620065871154409365e+00
6.103199861871324856e+02,-6.352443581831614061e+00,-2.418350539710555225e+01
8.786855916476853281e+02,-5.723654036741500306e+00,-1.027697318131234283e+01
9.215119751434293676e+02,-5.736865291781958476e+00,-7.541675797788979452e+00
2.473624594032780806e+02,-5.727177068170043128e+00,-1.869048607332111445e+01
3.038736592344375254e+02,-6.236070210724294682e+00,-2.113750155255872087e+01
2.115934821243768056e+02,-5.540664453880186358e+00,-1.656040467383082770e+01
5.185467816863306325e+02,-6.038230428908645919e+00,-2.490518915641256115e+01
5.379093785397216720e+01,-6.022048256448063519e+00,-5.245533711915394193e+00
3.839745016054442885e+02,-5.841924411880614620e+00,-2.379513959178628468e+01
7.075597240529798455e+02,-5.988774229400892324e+00,-2.058874691127210710e+01
8.083764566523350368e+02,-5.904740878148873051e+00,-1.554644139788702795e+01
9.665085548805074041e+02,-6.418402024426119290e+00,-2.939993280766874939e+00
2.385911287869112698e+02,-5.767283464593619513e+00,-1.834956471377041964e+01
3.637883486256917109e+01,-5.762453442630254052e+00,-3.277009777576612048e+00
9.104153575280172390e+02,-5.897157501266002910e+00,-8.552769366529702211e+00
6.363854735160308564e+02,-5.736471657754488973e+00,-2.355133021481351818e+01
1.257357685843376629e+02,-5.923220030839246419e+00,-1.093220877548413661e+01
8.881291172982116677e+02,-6.007131663207657013e+00,-9.753423374080115948e+00
1.548508477845008656e+03,-5.867177735148177753e+00,-2.479756593674268572e+01
1.823821660149802938e+03,-6.273317997630523557e+00,-1.445128856790469740e+01
1.974931530674356054e+03,-6.007027386655828138e+00,-2.659016309435970005e+00
1.802384359737644218e+03,-5.736469516482625153e+00,-1.550803007203232831e+01
1.179239685407060279e+03,-6.096462547542679467e+00,-1.462431937724500663e+01
1.308310754449974411e+03,-6.698407168452118476e+00,-2.142775998317067732e+01
1.385329729096875781e+03,-5.961371131033969206e+00,-2.342693711372497489e+01
1.753736748504254138e+03,-6.046553885323614708e+00,-1.850806201932870465e+01
1.475971727520489821e+03,-5.820894720206639228e+00,-2.477101950645469586e+01
1.756295926945449082e+03,-6.021964095052345201e+00,-1.838461493833375471e+01
1.409446432613727438e+03,-6.459405738367755667e+00,-2.464764879064347269e+01
1.548256175800592246e+03,-5.665238121974264907e+00,-2.458325116927776222e+01
1.737026892397855590e+03,-6.033334725312597513e+00,-1.903732012583645172e+01
1.351060264575283782e+03,-6.427422497668181300e+00,-2.288018041084588816e+01
1.199487368418766437e+03,-6.483358001486035249e+00,-1.646384811164886841e+01
1.176450615284217292e+03,-6.234857634595127429e+00,-1.484390265330153191e+01
1.368396122713245859e+03,-6.238910008494336523e+00,-2.368776770160929956e+01
1.657911911445968144e+03,-5.904074357836394782e+00,-2.273242404714725495e+01
1.801008002838753328e+03,-5.816565126132092090e+00,-1.649111540701654732e+01
1.656875790938853697e+03,-5.621992559984386517e+00,-2.257177099267072151e+01
1.073541767954002353e+03,-6.149084731994654440e+00,-7.227852546696847291e+00
1.513350030512012154e+03,-6.208924388377302428e+00,-2.491772213024760418e+01
1.495841420894981184e+03,-6.120050321589419084e+00,-2.509189649983451531e+01
1.123874234611773545e+03,-6.042695792139752164e+00,-1.099180407359964207e+01
1.196466935737419135e+03,-5.846688453681287534e+00,-1.563046089726138810e+01
1.651782560123846906e+03,-5.493429029790643625e+00,-2.241193838902272262e+01
1.496302875223941783e+03,-5.282953991871814026e+00,-2.514696166505867581e+01
1.036699088336623845e+03,-6.238800169345735114e+00,-3.587400976926943041e+00
1.609478774158310443e+03,-5.642625607539393684e+00,-2.397908446963436546e+01
1.864150017041856700e+03,-6.096560016448083985e+00,-1.170043563473801207e+01
1.784974032424268444e+03,-5.851600650517561064e+00,-1.661702149199361855e+01
1.323778944908995072e+03,-5.827697511758614723e+00,-2.164277096129963951e+01
1.558887635236701954e+03,-6.402409201546739759e+00,-2.476156162117297299e+01
1.884660238271480694e+03,-6.122478852289646944e+00,-1.009537023874398010e+01
1.240309290515105431e+03,-6.097828753609038976e+00,-1.795704895058366901e+01
1.617927605116883115e+03,-6.210955709922755474e+00,-2.319250167251511385e+01
1.421309599652636507e+03,-5.712503010686935667e+00,-2.420463292471984573e+01
1.854050930388202232e+03,-6.079864863024694088e+00,-1.278264202630523449e+01
1.862016552713184865e+03,-6.193380418630401785e+00,-1.188933583787052406e+01
1.045479613990440839e+03,-6.119285294332614811e+00,-4.440773035286394332e+00
1.977492173507867847e+03,-5.620101704041172930e+00,-1.916828029384078480e+00
1.537512095418979698e+03,-5.617128849308511640e+00,-2.480147388421682919e+01
1.533723933014464365e+03,-6.000504980383766451e+00,-2.470130522317420940e+01
1.554198163731452269e+03,-6.425391815101220594e+00,-2.527835858558738380e+01
1.312323239051455175e+03,-6.103433219704136548e+00,-2.098074074193288752e+01
1.754545895272876123e+03,-6.192885898355461549e+00,-1.924016973755184168e+01
1.846445532923271458e+03,-5.777349943043873282e+00,-1.313638444717144260e+01
1.465748432594763472e+03,-5.376823147668651437e+00,-2.478217522368122161e+01
1.798981697347970339e+03,-5.589219257473002855e+00,-1.589975478390880781e+01
1.383907274054959998e+03,-6.266252599883110896e+00,-2.386862017957345827e+01
1.657824143120845292e+03,-5.972798012256301803e+00,-2.254351505753885476e+01
1.352222735096777342e+03,-6.238993909292770645e+00,-2.226624014694509768e+01
1.322758133788740452e+03,-5.954301190650662434e+00,-2.178802506408644035e+01
1.787505865583287687e+03,-6.359246438518971978e+00,-1.683580300422973863e+01
1.390103898681668170e+03,-6.207355588131720836e+00,-2.377066799259149832e+01
1.817972906357452302e+03,-5.805729440919769502e+00,-1.462920954649653105e+01
1.732839961125737091e+03,-5.941580472039026617e+00,-1.944914734210535912e+01
1.577002590054238453e+03,-6.023339419628223723e+00,-2.463809922708799149e+01
1.808250216650292941e+03,-6.029087018878252380e+00,-1.566519736718459654e+01
1.912478090542440896e+03,-5.809267071876909938e+00,-7.945658638335753032e+00
1.949625979947469659e+03,-6.280703037416455636e+00,-4.457971233406544442e+00
1.935207067876164274e+03,-6.353484589026446194e+00,-6.293277476066474918e+00
1.768354708438504531e+03,-5.617928087175272367e+00,-1.716762662541156459e+01
1.983389463313741089e+03,-6.106312969526220158e+00,-2.008780661698402525e+00
1.068011473094212533e+03,-5.892819151744413730e+00,-6.348910801503058643e+00
1.386068553201602072e+03,-6.138483340621256446e+00,-2.387173004202983861e+01
1.953488321057353005e+03,-5.737191487412613533e+00,-4.400682598466866935e+00
1.358695267618796606e+03,-5.849362583358473699e+00,-2.293728567543536556e+01
1.668258701796718015e+03,-6.141679130528092223e+00,-2.206402596565798291e+01
1.949627208733217230e+03,-5.727090951330486845e+00,-4.574989598546441272e+00
1.197545803125600060e+03,-5.907721400509318599e+00,-1.609617087499036359e+01
1.590037886441908995e+03,-5.783160855986354321e+00,-2.437931536189626058e+01
1.733094523854091676e+03,-5.646964687045503695e+00,-1.908154362335535836e+01
1.799284790124170058e+03,-6.230220541459817518e+00,-1.580648883363936541e+01
1.455045106834834314e+03,-6.361172591756970363e+00,-2.497282031124677815e+01
1.656670961029916043e+03,-6.094265374781761224e+00,-2.265724479402113900e+01
1.702085624447658574e+03,-5.589025856353630139e+00,-2.089279670139740475e+01
1.863852698512750521e+03,-5.872279810793901156e+00,-1.176393474148030904e+01
1.441366238036637924e+03,-6.045855912893699724e+00,-2.503331676678131856e+01
1.519145102712147491e+03,-5.617218235438565799e+00,-2.500859449711882476e+01
1.815141780017524297e+03,-6.041082524987761104e+00,-1.510825282000080882e+01
1.992863197957269222e+03,-6.110994834650536944e+00,-6.860004628733501475e-01
1.787992755156147041e+03,-6.631869331536408119e+00,-1.670848800239349785e+01
1.313442559754246759e+03,-5.740679039796519056e+00,-2.137917159126514122e+01
1.245374189191611777e+03,-5.516732155205277266e+00,-1.830387437141810381e+01
1.462040829150921354e+03,-6.391921166703390611e+00,-2.522637879773404279e+01
1.825327587804255472e+03,-6.217238997690743396e+00,-1.458530026742730712e+01
1.614972786625098479e+03,-5.653144494715133916e+00,-2.363120137072104754e+01
1.751480801654343850e+03,-5.766717183954640724e+00,-1.853123111524499578e+01
1.996980354664972538e+03,-6.171492239417315950e+00,-2.607341439206891653e-01
1.281765782307265908e+03,-5.628399785697506097e+00,-1.985625276204122258e+01
1.669008383948504616e+03,-6.113493515167339076e+00,-2.241027465834493526e+01
1.702852323829258012e+03,-5.849952424648307669e+00,-2.075987856546585775e+01
1.612274770453607289e+03,-6.127242709769443962e+00,-2.335409493353655108e+01
1.160477492961755615e+03,-5.926412258500678654e+00,-1.367592737773786915e+01
1.592605031395812603e+03,-5.774566527837517782e+00,-2.421581413207856670e+01
1.138982952929500698e+03,-6.022767143147858881e+00,-1.177374167597967158e+01
1.980235718844334315e+03,-5.977155455291236485e+00,-2.019852842254303837e+00
1.873782000491828057e+03,-6.209073741461498486e+00,-1.090070009125842709e+01
1.637648677192042214e+03,-5.999404902311177956e+00,-2.311834566937204372e+01
2.077817707914386574e+03,-5.964992575255860352e+00,-7.146218945095405672e+00
2.225233138360735666e+03,-6.146317528826264365e+00,-1.717525222126155526e+01
2.907468603514229926e+03,-5.706652346073941118e+00,-8.133511436166385167e+00
2.492853810950481602e+03,-6.254292153806952470e+00,-2.503430100799193880e+01
2.392628042140521302e+03,-5.910164382086893653e+00,-2.393291892373710184e+01
2.358008482431131142e+03,-5.836462811477894697e+00,-2.294260615394873426e+01
2.048657863565403659e+03,-5.777645920051246442e+00,-4.665421091300538059e+00
2.292594816256124432e+03,-5.834629503687511765e+00,-2.095843051525300993e+01
2.629593736302158959e+03,-6.124319500947883022e+00,-2.361748442094595291e+01
2.247615215107731728e+03,-5.997915835931894257e+00,-1.856921282314898392e+01
2.967477802384048573e+03,-6.353914711818459793e+00,-3.053206771044284284e+00
2.806201158114769896e+03,-5.609682315501268945e+00,-1.584215146813662756e+01
2.045039854669043734e+03,-6.078464264344058954e+00,-4.127448163334555886e+00
2.173137522375652679e+03,-5.981600315308358340e+00,-1.471342237755823668e+01
2.400288892122531706e+03,-6.202122828954909295e+00,-2.382972330481594980e+01
2.904552785633850817e+03,-5.952225209407695949e+00,-8.564767981006379927e+00
2.094261929823708215e+03,-6.256793761611781690e+00,-9.122403441382228806e+00
2.325131879633777771e+03,-6.196029405531646717e+00,-2.149004250868206611e+01
2.843063460139916515e+03,-6.243432186334817224e+00,-1.345694450053742663e+01
2.069634215116241194e+03,-6.237305383697376193e+00,-6.441671464518448964e+00
2.335391312960236064e+03,-5.890414959479428170e+00,-2.208876473852068045e+01
2.303480497454453598e+03,-5.970591973609160164e+00,-2.100177353825623072e+01
2.646427090495232733e+03,-6.064959293203436630e+00,-2.278568773078401222e+01
2.545141344439375189e+03,-5.925112592371257314e+00,-2.481303844720618557e+01
2.476842321695147803e+03,-6.019092401219707789e+00,-2.477617645726059692e+01
2.060894616688204223e+03,-6.155733700188050328e+00,-5.682222321706484003e+00
2.774760650657559836e+03,-5.771391019440412329e+00,-1.768238966162493142e+01
2.237543144882648903e+03,-6.057332178511552812e+00,-1.826781480021367443e+01
2.483882521450930653e+03,-6.506396790413395692e+00,-2.501092981820083594e+01
